ply
format ascii 1.0
element vertex 1268
property float x
property float y
property float z
property uchar red
property uchar green
property uchar blue
end_header
-1.414414 1.648649 -0.005766 14 14 14
-4.562500 5.718750 -0.020000 14 14 14
-4.531250 5.718750 -0.020000 14 14 14
-4.500000 5.718750 -0.020000 14 14 14
-4.468750 5.718750 -0.020000 14 14 14
-4.437500 5.718750 -0.020000 14 14 14
-4.406250 5.718750 -0.020000 14 14 14
-4.375000 5.718750 -0.020000 14 14 14
-4.343750 5.718750 -0.020000 14 14 14
-4.312500 5.718750 -0.020000 14 14 14
-4.281250 5.718750 -0.020000 14 14 14
-4.218750 5.718750 -0.020000 14 14 14
-4.187500 5.718750 -0.020000 14 14 14
-0.477477 1.648649 -0.005766 14 14 14
-0.468468 1.648649 -0.005766 14 14 14
-0.459459 1.648649 -0.005766 14 14 14
-0.390465 1.661748 -0.005812 14 14 14
-0.378378 1.648649 -0.005766 14 14 14
-0.369369 1.648649 -0.005766 14 14 14
-0.360360 1.648649 -0.005766 14 14 14
-0.351351 1.648649 -0.005766 14 14 14
-0.342342 1.648649 -0.005766 14 14 14
-1.156250 5.718750 -0.020000 14 14 14
-1.125000 5.718750 -0.020000 14 14 14
-1.093750 5.718750 -0.020000 14 14 14
-1.062500 5.718750 -0.020000 14 14 14
-1.031250 5.718750 -0.020000 14 14 14
-1.000000 5.718750 -0.020000 16 12 14
-0.968750 5.718750 -0.020000 16 12 14
-0.937500 5.718750 -0.020000 16 12 14
-0.906250 5.718750 -0.020000 16 12 14
-0.875000 5.718750 -0.020000 16 12 14
-0.843750 5.718750 -0.020000 16 12 14
-0.812500 5.718750 -0.020000 16 12 14
-0.781250 5.718750 -0.020000 16 12 14
-0.750000 5.718750 -0.020000 16 12 14
-0.718750 5.718750 -0.020000 16 12 14
-0.687500 5.718750 -0.020000 16 12 14
-0.656250 5.718750 -0.020000 16 12 14
-0.625000 5.718750 -0.020000 16 12 14
-0.593750 5.718750 -0.020000 16 12 14
-0.550669 5.598470 -0.019579 16 12 14
-0.062500 3.812500 -0.013333 16 12 10
-0.041667 3.812500 -0.013333 16 12 10
-0.020833 3.812500 -0.013333 16 12 10
0.000000 3.812500 -0.013333 14 14 14
0.020833 3.812500 -0.013333 14 14 14
0.041667 3.812500 -0.013333 14 14 14
0.062581 3.817471 -0.013351 14 14 14
0.083225 3.807542 -0.013316 14 14 14
0.104031 3.807542 -0.013316 14 14 14
0.124675 3.802597 -0.013299 14 14 14
0.145078 3.792746 -0.013264 14 14 14
0.165803 3.792746 -0.013264 14 14 14
1.315927 3.822454 -0.013368 14 14 14
1.335072 3.817471 -0.013351 14 14 14
1.355932 3.817471 -0.013351 14 14 14
1.375000 3.812500 -0.013333 14 14 14
1.395833 3.812500 -0.013333 14 14 14
0.851511 1.923784 -0.006728 15 13 10
0.854723 1.907492 -0.006671 16 12 10
0.865147 1.907492 -0.006671 16 12 10
0.876141 1.908735 -0.006675 16 12 10
0.886571 1.908735 -0.006675 16 12 10
0.906250 1.906250 -0.006667 19 11 10
0.914880 1.902534 -0.006654 21 10 10
0.925276 1.902534 -0.006654 21 10 10
0.935673 1.902534 -0.006654 23 10 11
0.947300 1.905010 -0.006662 24 11 12
0.957710 1.905010 -0.006662 25 11 12
6.250000 5.718750 -0.020000 16 12 14
6.281250 5.718750 -0.020000 16 12 14
6.312500 5.718750 -0.020000 16 12 14
6.343750 5.718750 -0.020000 16 12 14
7.093750 5.718750 -0.020000 18 11 10
7.125000 5.718750 -0.020000 15 13 10
7.156250 5.718750 -0.020000 15 13 10
7.187500 5.718750 -0.020000 15 13 10
4.079792 2.539462 -0.008881 21 10 10
4.093668 2.539462 -0.008881 21 10 10
4.100433 2.535065 -0.008866 19 11 10
4.114286 2.535065 -0.008866 19 11 10
4.124568 2.532872 -0.008858 16 12 10
4.138408 2.532872 -0.008858 16 12 10
4.148660 2.530683 -0.008850 16 12 10
4.166090 2.532872 -0.008858 16 12 10
4.179931 2.532872 -0.008858 15 13 10
3.158306 1.907492 -0.006671 15 13 10
3.168730 1.907492 -0.006671 16 12 10
3.181226 1.908735 -0.006675 16 12 10
4.145639 2.479255 -0.008671 16 12 10
4.159187 2.479255 -0.008671 16 12 10
3.865854 2.231707 -0.007805 16 12 10
3.797015 2.185075 -0.007642 16 12 10
3.797619 2.178571 -0.007619 16 12 10
-2.892128 1.697959 -0.005971 14 14 14
-2.856153 1.682265 -0.005916 13 13 13
-2.828932 1.671642 -0.005878 10 11 13
-2.819747 1.671642 -0.005878 10 11 13
-2.810563 1.671642 -0.005878 9 10 12
-2.802987 1.672602 -0.005882 9 10 12
-2.762067 1.653606 -0.005815 14 14 14
-2.729730 1.639640 -0.005766 14 14 14
-2.720721 1.639640 -0.005766 14 14 14
-2.711712 1.639640 -0.005766 14 14 14
-2.693694 1.639640 -0.005766 14 14 14
-2.684685 1.639640 -0.005766 14 14 14
-2.675676 1.639640 -0.005766 14 14 14
-2.666667 1.639640 -0.005766 14 14 14
-2.663647 1.648924 -0.005798 14 14 14
-2.639640 1.639640 -0.005766 14 14 14
-2.630631 1.639640 -0.005766 14 14 14
-2.621622 1.639640 -0.005766 14 14 14
-2.621888 1.686161 -0.005929 14 14 14
-2.612623 1.686161 -0.005929 14 14 14
-2.545040 1.660205 -0.005838 14 14 14
-2.535918 1.660205 -0.005838 14 14 14
-2.617838 1.720024 -0.006048 14 14 14
-2.608387 1.720024 -0.006048 14 14 14
-2.571596 1.701929 -0.005985 14 14 14
-2.541449 1.688116 -0.005936 14 14 14
-2.517579 1.678386 -0.005902 14 14 14
-2.488279 1.664951 -0.005855 14 14 14
-2.441442 1.639640 -0.005766 14 14 14
-2.432432 1.639640 -0.005766 14 14 14
-2.423424 1.639640 -0.005766 14 14 14
-2.414414 1.639640 -0.005766 14 14 14
-2.405406 1.639640 -0.005766 14 14 14
-2.412699 1.650794 -0.005805 14 14 14
-2.378378 1.639640 -0.005766 14 14 14
-2.369369 1.639640 -0.005766 14 14 14
-2.360360 1.639640 -0.005766 14 14 14
-2.351351 1.639640 -0.005766 14 14 14
-2.342342 1.639640 -0.005766 14 14 14
-2.423392 1.702924 -0.005988 14 14 14
-2.414035 1.702924 -0.005988 14 14 14
-2.387921 1.691057 -0.005947 14 14 14
-2.377249 1.690075 -0.005943 14 14 14
-2.306470 1.652667 -0.005812 14 14 14
-2.279279 1.639640 -0.005766 14 14 14
-2.270270 1.639640 -0.005766 14 14 14
-2.261261 1.639640 -0.005766 14 14 14
-1.909091 1.654545 -0.005818 14 14 14
-1.882883 1.639640 -0.005766 14 14 14
-1.873874 1.639640 -0.005766 14 14 14
-1.864865 1.639640 -0.005766 14 14 14
-1.855856 1.639640 -0.005766 14 14 14
-1.846847 1.639640 -0.005766 14 14 14
-1.801802 1.639640 -0.005766 14 14 14
-1.792793 1.639640 -0.005766 14 14 14
-1.783784 1.639640 -0.005766 14 14 14
-1.774775 1.639640 -0.005766 14 14 14
-1.765766 1.639640 -0.005766 14 14 14
-1.756757 1.639640 -0.005766 14 14 14
-1.747748 1.639640 -0.005766 14 14 14
-1.738739 1.639640 -0.005766 14 14 14
-1.729730 1.639640 -0.005766 16 12 10
-1.720721 1.639640 -0.005766 16 12 10
-1.711712 1.639640 -0.005766 16 12 10
-1.702703 1.639640 -0.005766 16 12 10
-1.693694 1.639640 -0.005766 16 12 10
-1.684685 1.639640 -0.005766 16 12 10
-1.675676 1.639640 -0.005766 16 12 10
-1.666667 1.639640 -0.005766 16 12 10
-1.657658 1.639640 -0.005766 16 12 10
-1.648649 1.639640 -0.005766 16 12 10
-1.620023 1.656428 -0.005825 16 12 10
-1.594595 1.639640 -0.005766 16 12 10
-1.585586 1.639640 -0.005766 16 12 10
-1.576577 1.639640 -0.005766 16 12 10
-1.567568 1.639640 -0.005766 16 12 10
-1.558559 1.639640 -0.005766 16 12 10
-1.549550 1.639640 -0.005766 16 12 10
-1.540541 1.639640 -0.005766 16 12 10
-1.531532 1.639640 -0.005766 16 12 10
-1.522523 1.639640 -0.005766 16 12 10
-1.513514 1.639640 -0.005766 16 12 10
-1.513390 1.659259 -0.005835 16 12 10
-1.486486 1.639640 -0.005766 16 12 10
-1.477477 1.639640 -0.005766 16 12 10
-1.468468 1.639640 -0.005766 16 12 10
-1.459459 1.639640 -0.005766 16 12 10
-1.450450 1.639640 -0.005766 16 12 10
-1.441441 1.639640 -0.005766 14 14 14
-1.432432 1.639640 -0.005766 14 14 14
-1.423423 1.639640 -0.005766 14 14 14
-1.414414 1.639640 -0.005766 14 14 14
-1.405405 1.639640 -0.005766 14 14 14
-4.593750 5.687500 -0.020000 14 14 14
-4.562500 5.687500 -0.020000 14 14 14
-4.531250 5.687500 -0.020000 14 14 14
-4.500000 5.687500 -0.020000 14 14 14
-4.406250 5.687500 -0.020000 14 14 14
-4.375000 5.687500 -0.020000 14 14 14
-4.343750 5.687500 -0.020000 14 14 14
-0.390465 1.652667 -0.005812 14 14 14
-0.378378 1.639640 -0.005766 14 14 14
-0.369369 1.639640 -0.005766 14 14 14
-0.360360 1.639640 -0.005766 14 14 14
-0.351351 1.639640 -0.005766 14 14 14
-0.342342 1.639640 -0.005766 14 14 14
-1.156250 5.687500 -0.020000 14 14 14
-1.125000 5.687500 -0.020000 14 14 14
-1.093750 5.687500 -0.020000 14 14 14
-1.062500 5.687500 -0.020000 14 14 14
-1.031250 5.687500 -0.020000 14 14 14
-1.000000 5.687500 -0.020000 16 12 14
-0.968750 5.687500 -0.020000 16 12 14
-0.937500 5.687500 -0.020000 16 12 14
-0.906250 5.687500 -0.020000 16 12 14
-0.875000 5.687500 -0.020000 16 12 14
-0.843750 5.687500 -0.020000 16 12 14
-0.812500 5.687500 -0.020000 16 12 14
-0.781250 5.687500 -0.020000 16 12 14
-0.750000 5.687500 -0.020000 16 12 14
-0.718750 5.687500 -0.020000 16 12 14
-0.687500 5.687500 -0.020000 16 12 14
-0.656250 5.687500 -0.020000 16 12 14
-0.625000 5.687500 -0.020000 16 12 14
-0.593750 5.687500 -0.020000 16 12 14
-0.550669 5.567878 -0.019579 16 12 14
-0.041667 3.791667 -0.013333 16 12 10
-0.020833 3.791667 -0.013333 16 12 10
0.000000 3.791667 -0.013333 14 14 14
0.020833 3.791667 -0.013333 14 14 14
0.041721 3.796610 -0.013351 14 14 14
0.062581 3.796610 -0.013351 14 14 14
0.083333 3.791667 -0.013333 14 14 14
0.103896 3.781818 -0.013299 14 14 14
0.124352 3.772021 -0.013264 14 14 14
0.144890 3.767141 -0.013247 14 14 14
0.165803 3.772021 -0.013264 14 14 14
1.338562 3.806536 -0.013386 14 14 14
1.355932 3.796610 -0.013351 14 14 14
1.376793 3.796610 -0.013351 14 14 14
0.878111 1.858328 -0.006535 19 11 10
0.904483 1.892138 -0.006654 19 11 10
0.915475 1.893368 -0.006658 21 10 10
0.925878 1.893368 -0.006658 21 10 10
0.936281 1.893368 -0.006658 23 10 11
0.947300 1.894600 -0.006662 24 11 12
0.957710 1.894600 -0.006662 25 11 12
0.968750 1.895833 -0.006667 26 12 13
6.218750 5.687500 -0.020000 16 12 14
6.250000 5.687500 -0.020000 16 12 14
6.281250 5.687500 -0.020000 16 12 14
6.312500 5.687500 -0.020000 16 12 14
6.343750 5.687500 -0.020000 16 12 14
6.375000 5.687500 -0.020000 16 12 14
7.093750 5.687500 -0.020000 18 11 10
7.125000 5.687500 -0.020000 15 13 10
7.156250 5.687500 -0.020000 15 13 10
7.187500 5.687500 -0.020000 15 13 10
4.083333 2.527778 -0.008889 21 10 10
4.093668 2.525585 -0.008881 21 10 10
4.100433 2.521212 -0.008866 19 11 10
4.114286 2.521212 -0.008866 19 11 10
4.124568 2.519031 -0.008858 16 12 10
4.141991 2.521212 -0.008866 16 12 10
4.148660 2.516854 -0.008850 16 12 10
4.169697 2.521212 -0.008866 16 12 10
4.176318 2.516854 -0.008850 15 13 10
3.158306 1.897068 -0.006671 15 13 10
3.168730 1.897068 -0.006671 16 12 10
3.183301 1.899543 -0.006680 16 12 10
4.145639 2.465707 -0.008671 16 12 10
4.166243 2.469890 -0.008685 16 12 10
4.179813 2.469890 -0.008685 16 12 10
3.218689 1.889682 -0.006645 16 12 10
3.889570 2.233129 -0.007853 16 12 10
3.878049 2.219512 -0.007805 16 12 10
3.843374 2.192771 -0.007711 16 12 10
-2.901458 1.688630 -0.005971 16 14 11
-2.865396 1.673021 -0.005916 15 15 15
-2.847926 1.668203 -0.005899 14 14 14
-2.828932 1.662457 -0.005878 11 12 14
-2.821367 1.663412 -0.005882 11 12 14
-2.812177 1.663412 -0.005882 10 11 13
-2.802987 1.663412 -0.005882 10 11 13
-2.793797 1.663412 -0.005882 14 14 14
-2.729730 1.630631 -0.005766 14 14 14
-2.720721 1.630631 -0.005766 14 14 14
-2.711712 1.630631 -0.005766 14 14 14
-2.702703 1.630631 -0.005766 14 14 14
-2.693694 1.630631 -0.005766 14 14 14
-2.684685 1.630631 -0.005766 14 14 14
-2.675676 1.630631 -0.005766 14 14 14
-2.714040 1.659599 -0.005868 14 14 14
-2.672727 1.645455 -0.005818 14 14 14
-2.639640 1.630631 -0.005766 14 14 14
-2.630631 1.630631 -0.005766 14 14 14
-2.621622 1.630631 -0.005766 14 14 14
-2.576576 1.630631 -0.005766 14 14 14
-2.567568 1.630631 -0.005766 14 14 14
-2.629630 1.675926 -0.005926 14 14 14
-2.620370 1.675926 -0.005926 14 14 14
-2.609601 1.674957 -0.005922 14 14 14
-2.601852 1.675926 -0.005926 14 14 14
-2.570281 1.661503 -0.005875 14 14 14
-2.559633 1.660550 -0.005872 14 14 14
-2.608387 1.710573 -0.006048 14 14 14
-2.571596 1.692577 -0.005985 14 14 14
-2.541449 1.678841 -0.005936 14 14 14
-2.516129 1.668203 -0.005899 14 14 14
-2.489702 1.656751 -0.005858 14 14 14
-2.441442 1.630631 -0.005766 14 14 14
-2.432432 1.630631 -0.005766 14 14 14
-2.423424 1.630631 -0.005766 14 14 14
-2.414414 1.630631 -0.005766 14 14 14
-2.417657 1.638936 -0.005795 14 14 14
-2.412699 1.641723 -0.005805 14 14 14
-2.403628 1.641723 -0.005805 14 14 14
-2.393201 1.640793 -0.005802 14 14 14
-2.369369 1.630631 -0.005766 14 14 14
-2.360360 1.630631 -0.005766 14 14 14
-2.351351 1.630631 -0.005766 14 14 14
-2.342342 1.630631 -0.005766 14 14 14
-2.420561 1.691589 -0.005981 14 14 14
-2.411215 1.691589 -0.005981 14 14 14
-2.386535 1.680789 -0.005943 14 14 14
-2.377249 1.680789 -0.005943 14 14 14
-2.288288 1.630631 -0.005766 14 14 14
-2.279279 1.630631 -0.005766 14 14 14
-2.270270 1.630631 -0.005766 14 14 14
-2.261261 1.630631 -0.005766 14 14 14
-1.910176 1.646390 -0.005821 14 14 14
-1.882883 1.630631 -0.005766 14 14 14
-1.873874 1.630631 -0.005766 14 14 14
-1.864865 1.630631 -0.005766 14 14 14
-1.855856 1.630631 -0.005766 14 14 14
-1.846847 1.630631 -0.005766 14 14 14
-1.812005 1.639864 -0.005798 14 14 14
-1.792793 1.630631 -0.005766 14 14 14
-1.783784 1.630631 -0.005766 14 14 14
-1.774775 1.630631 -0.005766 14 14 14
-1.765766 1.630631 -0.005766 14 14 14
-1.756757 1.630631 -0.005766 14 14 14
-1.747748 1.630631 -0.005766 14 14 14
-1.738739 1.630631 -0.005766 14 14 14
-1.729730 1.630631 -0.005766 16 12 10
-1.720721 1.630631 -0.005766 16 12 10
-1.711712 1.630631 -0.005766 16 12 10
-1.702703 1.630631 -0.005766 16 12 10
-1.693694 1.630631 -0.005766 16 12 10
-1.684685 1.630631 -0.005766 16 12 10
-1.675676 1.630631 -0.005766 16 12 10
-1.666667 1.630631 -0.005766 16 12 10
-1.657658 1.630631 -0.005766 16 12 10
-1.648649 1.630631 -0.005766 16 12 10
-1.642202 1.660550 -0.005872 16 12 10
-1.631157 1.658648 -0.005865 16 12 10
-1.609091 1.645455 -0.005818 16 12 10
-1.585586 1.630631 -0.005766 16 12 10
-1.576577 1.630631 -0.005766 16 12 10
-1.567568 1.630631 -0.005766 16 12 10
-1.558559 1.630631 -0.005766 16 12 10
-1.549550 1.630631 -0.005766 16 12 10
-1.540541 1.630631 -0.005766 16 12 10
-1.531532 1.630631 -0.005766 16 12 10
-1.522523 1.630631 -0.005766 16 12 10
-1.513390 1.650142 -0.005835 16 12 10
-1.486486 1.630631 -0.005766 16 12 10
-1.477477 1.630631 -0.005766 16 12 10
-1.468468 1.630631 -0.005766 16 12 10
-1.459459 1.630631 -0.005766 16 12 10
-1.450450 1.630631 -0.005766 16 12 10
-1.441441 1.630631 -0.005766 14 14 14
-1.432432 1.630631 -0.005766 14 14 14
-1.423423 1.630631 -0.005766 14 14 14
-1.414414 1.630631 -0.005766 14 14 14
-1.405405 1.630631 -0.005766 14 14 14
-1.396396 1.630631 -0.005766 14 14 14
-4.593750 5.656250 -0.020000 14 14 14
-4.562500 5.656250 -0.020000 14 14 14
-4.531250 5.656250 -0.020000 14 14 14
-4.500000 5.656250 -0.020000 14 14 14
-4.468750 5.656250 -0.020000 14 14 14
-4.093750 5.656250 -0.020000 14 14 14
-4.062500 5.656250 -0.020000 14 14 14
-4.031250 5.656250 -0.020000 14 14 14
-4.000000 5.656250 -0.020000 14 14 14
-3.968750 5.656250 -0.020000 14 14 14
-3.937500 5.656250 -0.020000 14 14 14
-3.843750 5.656250 -0.020000 14 14 14
-3.812500 5.656250 -0.020000 14 14 14
-0.390465 1.643587 -0.005812 14 14 14
-0.378378 1.630631 -0.005766 14 14 14
-0.369369 1.630631 -0.005766 14 14 14
-0.360360 1.630631 -0.005766 14 14 14
-0.351351 1.630631 -0.005766 14 14 14
-1.125000 5.656250 -0.020000 14 14 14
-1.093750 5.656250 -0.020000 14 14 14
-1.062500 5.656250 -0.020000 14 14 14
-1.031250 5.656250 -0.020000 14 14 14
-1.000000 5.656250 -0.020000 16 12 14
-0.968750 5.656250 -0.020000 16 12 14
-0.937500 5.656250 -0.020000 16 12 14
-0.906250 5.656250 -0.020000 16 12 14
-0.875000 5.656250 -0.020000 16 12 14
-0.843750 5.656250 -0.020000 16 12 14
-0.812500 5.656250 -0.020000 16 12 14
-0.781250 5.656250 -0.020000 16 12 14
-0.750000 5.656250 -0.020000 16 12 14
-0.718750 5.656250 -0.020000 16 12 14
-0.687500 5.656250 -0.020000 16 12 14
-0.656250 5.656250 -0.020000 16 12 14
-0.625000 5.656250 -0.020000 16 12 14
-0.593750 5.656250 -0.020000 16 12 14
-0.550669 5.537285 -0.019579 16 12 14
-0.041667 3.770833 -0.013333 16 12 10
-0.020833 3.770833 -0.013333 16 12 10
0.000000 3.770833 -0.013333 14 14 14
0.020833 3.770833 -0.013333 14 14 14
0.041721 3.775750 -0.013351 14 14 14
0.062581 3.775750 -0.013351 14 14 14
0.083225 3.765930 -0.013316 14 14 14
0.103627 3.751295 -0.013264 14 14 14
0.124352 3.751295 -0.013264 14 14 14
0.144890 3.746442 -0.013247 14 14 14
0.867900 1.848117 -0.006535 16 12 10
0.878111 1.848117 -0.006535 19 11 10
0.888322 1.848117 -0.006535 19 11 10
0.915475 1.882965 -0.006658 21 10 10
0.925878 1.882965 -0.006658 21 10 10
0.936890 1.884190 -0.006662 23 10 11
0.947917 1.885417 -0.006667 24 11 12
0.958333 1.885417 -0.006667 25 11 12
0.967490 1.882965 -0.006658 26 12 13
0.977893 1.882965 -0.006658 27 13 14
6.218750 5.656250 -0.020000 16 12 14
6.250000 5.656250 -0.020000 16 12 14
6.281250 5.656250 -0.020000 16 12 14
6.312500 5.656250 -0.020000 16 12 14
6.343750 5.656250 -0.020000 16 12 14
6.375000 5.656250 -0.020000 16 12 14
6.406250 5.656250 -0.020000 16 12 14
7.125000 5.656250 -0.020000 15 13 10
7.156250 5.656250 -0.020000 15 13 10
4.083333 2.513889 -0.008889 21 10 10
4.093668 2.511708 -0.008881 21 10 10
4.100433 2.507359 -0.008866 19 11 10
4.110727 2.505190 -0.008858 19 11 10
4.124568 2.505190 -0.008858 16 12 10
4.141991 2.507359 -0.008866 16 12 10
4.155844 2.507359 -0.008866 16 12 10
4.169697 2.507359 -0.008866 16 12 10
4.176318 2.503025 -0.008850 15 13 10
3.158306 1.886645 -0.006671 15 13 10
3.168730 1.886645 -0.006671 16 12 10
3.183301 1.889106 -0.006680 16 12 10
4.152672 2.456319 -0.008685 16 12 10
4.179813 2.456319 -0.008685 16 12 10
3.210390 1.880520 -0.006649 16 12 10
3.202066 1.869593 -0.006611 16 12 10
3.212395 1.869593 -0.006611 16 12 10
3.579545 2.056818 -0.007273 16 12 10
3.868401 2.215761 -0.007835 16 12 10
3.889570 2.220859 -0.007853 16 12 10
3.901840 2.220859 -0.007853 16 12 10
3.920123 2.224270 -0.007865 16 12 10
-2.880372 1.672474 -0.005947 15 15 15
-2.812177 1.654222 -0.005882 11 12 14
-2.802987 1.654222 -0.005882 11 12 14
-2.793797 1.654222 -0.005882 14 14 14
-2.773455 1.647597 -0.005858 14 14 14
-2.720721 1.621622 -0.005766 14 14 14
-2.711712 1.621622 -0.005766 14 14 14
-2.702703 1.621622 -0.005766 14 14 14
-2.693694 1.621622 -0.005766 14 14 14
-2.684685 1.621622 -0.005766 14 14 14
-2.675676 1.621622 -0.005766 14 14 14
-2.704871 1.650430 -0.005868 14 14 14
-2.672727 1.636364 -0.005818 14 14 14
-2.639640 1.621622 -0.005766 14 14 14
-2.630631 1.621622 -0.005766 14 14 14
-2.621622 1.621622 -0.005766 14 14 14
-2.680532 1.663778 -0.005916 14 14 14
-2.576576 1.621622 -0.005766 14 14 14
-2.567568 1.621622 -0.005766 14 14 14
-2.628109 1.665703 -0.005922 14 14 14
-2.618855 1.665703 -0.005922 14 14 14
-2.609601 1.665703 -0.005922 14 14 14
-2.595843 1.662818 -0.005912 14 14 14
-2.570281 1.652324 -0.005875 14 14 14
-2.559633 1.651376 -0.005872 14 14 14
-2.613018 1.704142 -0.006059 14 14 14
-2.573099 1.684211 -0.005988 14 14 14
-2.541449 1.669565 -0.005936 14 14 14
-2.517579 1.659942 -0.005902 14 14 14
-2.492554 1.649485 -0.005865 14 14 14
-2.455266 1.630804 -0.005798 14 14 14
-2.432432 1.621622 -0.005766 14 14 14
-2.423424 1.621622 -0.005766 14 14 14
-2.426712 1.629881 -0.005795 14 14 14
-2.417657 1.629881 -0.005795 14 14 14
-2.408602 1.629881 -0.005795 14 14 14
-2.398190 1.628959 -0.005792 14 14 14
-2.378378 1.621622 -0.005766 14 14 14
-2.369369 1.621622 -0.005766 14 14 14
-2.360360 1.621622 -0.005766 14 14 14
-2.351351 1.621622 -0.005766 14 14 14
-2.342342 1.621622 -0.005766 14 14 14
-2.413512 1.677344 -0.005964 14 14 14
-2.404193 1.677344 -0.005964 14 14 14
-2.394875 1.677344 -0.005964 14 14 14
-2.371743 1.667632 -0.005929 14 14 14
-2.339450 1.651376 -0.005872 14 14 14
-2.288288 1.621622 -0.005766 14 14 14
-2.279279 1.621622 -0.005766 14 14 14
-2.270270 1.621622 -0.005766 14 14 14
-2.261261 1.621622 -0.005766 14 14 14
-1.911263 1.638225 -0.005825 14 14 14
-1.882883 1.621622 -0.005766 14 14 14
-1.873874 1.621622 -0.005766 14 14 14
-1.864865 1.621622 -0.005766 14 14 14
-1.855856 1.621622 -0.005766 14 14 14
-1.846847 1.621622 -0.005766 14 14 14
-1.813031 1.631728 -0.005802 14 14 14
-1.792793 1.621622 -0.005766 14 14 14
-1.783784 1.621622 -0.005766 14 14 14
-1.774775 1.621622 -0.005766 14 14 14
-1.765766 1.621622 -0.005766 14 14 14
-1.756757 1.621622 -0.005766 14 14 14
-1.747748 1.621622 -0.005766 14 14 14
-1.738739 1.621622 -0.005766 14 14 14
-1.729730 1.621622 -0.005766 16 12 10
-1.720721 1.621622 -0.005766 16 12 10
-1.711712 1.621622 -0.005766 16 12 10
-1.702703 1.621622 -0.005766 16 12 10
-1.693694 1.621622 -0.005766 16 12 10
-1.684685 1.621622 -0.005766 16 12 10
-1.675676 1.621622 -0.005766 16 12 10
-1.666667 1.621622 -0.005766 16 12 10
-1.657658 1.621622 -0.005766 16 12 10
-1.648649 1.621622 -0.005766 16 12 10
-1.633028 1.651376 -0.005872 16 12 10
-1.609091 1.636364 -0.005818 16 12 10
-1.585586 1.621622 -0.005766 16 12 10
-1.576577 1.621622 -0.005766 16 12 10
-1.567568 1.621622 -0.005766 16 12 10
-1.558559 1.621622 -0.005766 16 12 10
-1.549550 1.621622 -0.005766 16 12 10
-1.540541 1.621622 -0.005766 16 12 10
-1.531532 1.621622 -0.005766 16 12 10
-1.522523 1.621622 -0.005766 16 12 10
-1.513390 1.641026 -0.005835 16 12 10
-1.486486 1.621622 -0.005766 16 12 10
-1.477477 1.621622 -0.005766 16 12 10
-1.468468 1.621622 -0.005766 16 12 10
-1.459459 1.621622 -0.005766 16 12 10
-1.450450 1.621622 -0.005766 16 12 10
-1.441441 1.621622 -0.005766 14 14 14
-1.432432 1.621622 -0.005766 14 14 14
-1.423423 1.621622 -0.005766 14 14 14
-1.414414 1.621622 -0.005766 14 14 14
-1.405405 1.621622 -0.005766 14 14 14
-1.396396 1.621622 -0.005766 14 14 14
-4.593750 5.625000 -0.020000 14 14 14
-4.562500 5.625000 -0.020000 14 14 14
-4.531250 5.625000 -0.020000 14 14 14
-4.500000 5.625000 -0.020000 14 14 14
-4.093750 5.625000 -0.020000 14 14 14
-4.062500 5.625000 -0.020000 14 14 14
-4.031250 5.625000 -0.020000 14 14 14
-4.000000 5.625000 -0.020000 14 14 14
-3.968750 5.625000 -0.020000 14 14 14
-3.937500 5.625000 -0.020000 14 14 14
-3.906250 5.625000 -0.020000 14 14 14
-3.875000 5.625000 -0.020000 14 14 14
-3.843750 5.625000 -0.020000 14 14 14
-3.812500 5.625000 -0.020000 14 14 14
-0.390465 1.634506 -0.005812 14 14 14
-0.378378 1.621622 -0.005766 14 14 14
-0.369369 1.621622 -0.005766 14 14 14
-0.360360 1.621622 -0.005766 14 14 14
-0.351351 1.621622 -0.005766 14 14 14
-1.125000 5.625000 -0.020000 14 14 14
-1.093750 5.625000 -0.020000 14 14 14
-1.062500 5.625000 -0.020000 14 14 14
-1.031250 5.625000 -0.020000 14 14 14
-1.000000 5.625000 -0.020000 16 12 14
-0.968750 5.625000 -0.020000 16 12 14
-0.937500 5.625000 -0.020000 16 12 14
-0.906250 5.625000 -0.020000 16 12 14
-0.875000 5.625000 -0.020000 16 12 14
-0.843750 5.625000 -0.020000 16 12 14
-0.812500 5.625000 -0.020000 16 12 14
-0.781250 5.625000 -0.020000 16 12 14
-0.727273 5.454545 -0.019394 16 12 14
-0.718750 5.625000 -0.020000 16 12 14
-0.687500 5.625000 -0.020000 16 12 14
-0.656250 5.625000 -0.020000 16 12 14
-0.625000 5.625000 -0.020000 16 12 14
-0.593750 5.625000 -0.020000 16 12 14
-0.562500 5.625000 -0.020000 16 12 14
-0.041612 3.745124 -0.013316 16 12 10
-0.020806 3.745124 -0.013316 16 12 10
0.000000 3.750000 -0.013333 14 14 14
0.020860 3.754889 -0.013351 14 14 14
0.041667 3.750000 -0.013333 14 14 14
0.062500 3.750000 -0.013333 14 14 14
0.082902 3.730570 -0.013264 14 14 14
0.103627 3.730570 -0.013264 14 14 14
0.124352 3.730570 -0.013264 14 14 14
0.858238 1.839080 -0.006539 16 12 10
0.867347 1.836735 -0.006531 16 12 10
0.877551 1.836735 -0.006531 19 11 10
0.888322 1.837907 -0.006535 19 11 10
0.915475 1.872562 -0.006658 21 10 10
0.926480 1.873780 -0.006662 21 10 10
0.937500 1.875000 -0.006667 23 10 11
0.947917 1.875000 -0.006667 24 11 12
0.958333 1.875000 -0.006667 25 11 12
0.967490 1.872562 -0.006658 26 12 13
0.977893 1.872562 -0.006658 27 13 14
6.218750 5.625000 -0.020000 16 12 14
6.250000 5.625000 -0.020000 16 12 14
6.281250 5.625000 -0.020000 16 12 14
6.312500 5.625000 -0.020000 16 12 14
6.343750 5.625000 -0.020000 16 12 14
6.375000 5.625000 -0.020000 16 12 14
6.406250 5.625000 -0.020000 16 12 14
6.437500 5.625000 -0.020000 16 12 14
6.562500 5.625000 -0.020000 16 12 10
6.593750 5.625000 -0.020000 16 12 10
6.625000 5.625000 -0.020000 16 12 10
7.125000 5.625000 -0.020000 15 13 10
7.156250 5.625000 -0.020000 15 13 10
4.083333 2.500000 -0.008889 21 10 10
4.097222 2.500000 -0.008889 21 10 10
4.103986 2.495667 -0.008873 19 11 10
4.110727 2.491349 -0.008858 19 11 10
4.124568 2.491349 -0.008858 16 12 10
3.729231 2.215385 -0.007877 15 13 10
3.172864 1.878669 -0.006680 16 12 10
4.160273 2.455243 -0.008730 16 12 10
4.179813 2.442748 -0.008685 16 12 10
3.208306 1.868916 -0.006645 16 12 10
3.210356 1.864078 -0.006628 16 12 10
3.220712 1.864078 -0.006628 16 12 10
3.579545 2.045455 -0.007273 16 12 10
3.553057 2.023893 -0.007196 16 12 10
3.889570 2.208589 -0.007853 16 12 10
3.907834 2.211982 -0.007865 16 12 10
3.920123 2.211982 -0.007865 16 12 10
-2.812177 1.645032 -0.005882 12 13 15
-2.802987 1.645032 -0.005882 11 12 14
-2.793797 1.645032 -0.005882 14 14 14
-2.776632 1.640321 -0.005865 14 14 14
-2.720721 1.612613 -0.005766 14 14 14
-2.711712 1.612613 -0.005766 14 14 14
-2.702703 1.612613 -0.005766 14 14 14
-2.693694 1.612613 -0.005766 14 14 14
-2.684685 1.612613 -0.005766 14 14 14
-2.675676 1.612613 -0.005766 14 14 14
-2.714040 1.641261 -0.005868 14 14 14
-2.704871 1.641261 -0.005868 14 14 14
-2.672727 1.627273 -0.005818 14 14 14
-2.639640 1.612613 -0.005766 14 14 14
-2.630631 1.612613 -0.005766 14 14 14
-2.621622 1.612613 -0.005766 14 14 14
-2.680532 1.654535 -0.005916 14 14 14
-2.666667 1.657407 -0.005926 14 14 14
-2.576576 1.612613 -0.005766 14 14 14
-2.567568 1.612613 -0.005766 14 14 14
-2.558558 1.612613 -0.005766 14 14 14
-2.618855 1.656449 -0.005922 14 14 14
-2.609601 1.656449 -0.005922 14 14 14
-2.579461 1.643144 -0.005875 14 14 14
-2.570281 1.643144 -0.005875 14 14 14
-2.540694 1.630051 -0.005828 14 14 14
-2.531588 1.630051 -0.005828 14 14 14
-2.631829 1.700713 -0.006081 14 14 14
-2.613018 1.694675 -0.006059 14 14 14
-2.583676 1.681738 -0.006013 14 14 14
-2.553291 1.668026 -0.005964 14 14 14
-2.521940 1.653580 -0.005912 14 14 14
-2.492554 1.640321 -0.005865 14 14 14
-2.469248 1.630980 -0.005831 14 14 14
-2.448980 1.623583 -0.005805 14 14 14
-2.444066 1.626349 -0.005815 14 14 14
-2.434980 1.626349 -0.005815 14 14 14
-2.417657 1.620826 -0.005795 14 14 14
-2.396396 1.612613 -0.005766 14 14 14
-2.387387 1.612613 -0.005766 14 14 14
-2.378378 1.612613 -0.005766 14 14 14
-2.369369 1.612613 -0.005766 14 14 14
-2.360360 1.612613 -0.005766 14 14 14
-2.351351 1.612613 -0.005766 14 14 14
-2.342342 1.612613 -0.005766 14 14 14
-2.333333 1.612613 -0.005766 14 14 14
-2.404193 1.668026 -0.005964 14 14 14
-2.399066 1.670945 -0.005974 14 14 14
-2.367630 1.655491 -0.005919 14 14 14
-2.297297 1.612613 -0.005766 14 14 14
-2.288288 1.612613 -0.005766 14 14 14
-2.279279 1.612613 -0.005766 14 14 14
-2.270270 1.612613 -0.005766 14 14 14
-2.261261 1.612613 -0.005766 14 14 14
-1.911263 1.629124 -0.005825 14 14 14
-1.882883 1.612613 -0.005766 14 14 14
-1.873874 1.612613 -0.005766 14 14 14
-1.813031 1.622663 -0.005802 14 14 14
-1.792793 1.612613 -0.005766 14 14 14
-1.783784 1.612613 -0.005766 14 14 14
-1.774775 1.612613 -0.005766 14 14 14
-1.765766 1.612613 -0.005766 14 14 14
-1.756757 1.612613 -0.005766 14 14 14
-1.747748 1.612613 -0.005766 14 14 14
-1.738739 1.612613 -0.005766 14 14 14
-1.729730 1.612613 -0.005766 16 12 10
-1.720721 1.612613 -0.005766 16 12 10
-1.711712 1.612613 -0.005766 16 12 10
-1.702703 1.612613 -0.005766 16 12 10
-1.693694 1.612613 -0.005766 16 12 10
-1.684685 1.612613 -0.005766 16 12 10
-1.675676 1.612613 -0.005766 16 12 10
-1.666667 1.612613 -0.005766 16 12 10
-1.657658 1.612613 -0.005766 16 12 10
-1.648649 1.612613 -0.005766 16 12 10
-1.631157 1.640321 -0.005865 16 12 10
-1.603624 1.621744 -0.005798 16 12 10
-1.585586 1.612613 -0.005766 16 12 10
-1.576577 1.612613 -0.005766 16 12 10
-1.567568 1.612613 -0.005766 16 12 10
-1.558559 1.612613 -0.005766 16 12 10
-1.549550 1.612613 -0.005766 16 12 10
-1.540541 1.612613 -0.005766 16 12 10
-1.531532 1.612613 -0.005766 16 12 10
-1.522523 1.612613 -0.005766 16 12 10
-1.549280 1.650720 -0.005902 16 12 10
-1.540058 1.650720 -0.005902 16 12 10
-1.513390 1.631909 -0.005835 16 12 10
-1.493213 1.619910 -0.005792 16 12 10
-1.477477 1.612613 -0.005766 16 12 10
-1.468468 1.612613 -0.005766 16 12 10
-1.459459 1.612613 -0.005766 16 12 10
-1.450450 1.612613 -0.005766 16 12 10
-1.448783 1.620826 -0.005795 14 14 14
-1.432432 1.612613 -0.005766 14 14 14
-1.423423 1.612613 -0.005766 14 14 14
-1.414414 1.612613 -0.005766 14 14 14
-1.405405 1.612613 -0.005766 14 14 14
-1.396396 1.612613 -0.005766 14 14 14
-4.593750 5.593750 -0.020000 14 14 14
-4.562500 5.593750 -0.020000 14 14 14
-4.531250 5.593750 -0.020000 14 14 14
-4.062500 5.593750 -0.020000 14 14 14
-4.031250 5.593750 -0.020000 14 14 14
-4.000000 5.593750 -0.020000 14 14 14
-3.968750 5.593750 -0.020000 14 14 14
-3.937500 5.593750 -0.020000 14 14 14
-3.906250 5.593750 -0.020000 14 14 14
-0.390023 1.623583 -0.005805 14 14 14
-0.378378 1.612613 -0.005766 14 14 14
-0.369369 1.612613 -0.005766 14 14 14
-0.360360 1.612613 -0.005766 14 14 14
-1.125000 5.593750 -0.020000 14 14 14
-1.093750 5.593750 -0.020000 14 14 14
-1.062500 5.593750 -0.020000 14 14 14
-1.031250 5.593750 -0.020000 14 14 14
-1.000000 5.593750 -0.020000 16 12 14
-0.968750 5.593750 -0.020000 16 12 14
-0.937500 5.593750 -0.020000 16 12 14
-0.906250 5.593750 -0.020000 16 12 14
-0.875000 5.593750 -0.020000 16 12 14
-0.843750 5.593750 -0.020000 16 12 14
-0.812500 5.593750 -0.020000 16 12 14
-0.757576 5.424242 -0.019394 16 12 14
-0.727273 5.424242 -0.019394 16 12 14
-0.718750 5.593750 -0.020000 16 12 14
-0.687500 5.593750 -0.020000 16 12 14
-0.656250 5.593750 -0.020000 16 12 14
-0.625000 5.593750 -0.020000 16 12 14
-0.593750 5.593750 -0.020000 16 12 14
-0.562500 5.593750 -0.020000 16 12 14
-0.041612 3.724317 -0.013316 16 12 10
-0.020806 3.724317 -0.013316 16 12 10
0.000000 3.729167 -0.013333 14 14 14
0.020860 3.734029 -0.013351 14 14 14
0.041667 3.729167 -0.013333 14 14 14
0.062176 3.709845 -0.013264 14 14 14
0.082794 3.705045 -0.013247 14 14 14
0.103627 3.709845 -0.013264 14 14 14
0.838339 1.830032 -0.006543 16 12 10
0.848562 1.830032 -0.006543 16 12 10
0.857690 1.827696 -0.006535 16 12 10
0.867347 1.826531 -0.006531 16 12 10
0.877551 1.826531 -0.006531 19 11 10
0.905071 1.862159 -0.006658 19 11 10
0.915475 1.862159 -0.006658 21 10 10
0.926480 1.863370 -0.006662 21 10 10
0.937500 1.864583 -0.006667 23 10 11
0.947917 1.864583 -0.006667 24 11 12
0.958333 1.864583 -0.006667 25 11 12
0.968750 1.864583 -0.006667 26 12 13
6.187500 5.593750 -0.020000 16 12 14
6.218750 5.593750 -0.020000 16 12 14
6.250000 5.593750 -0.020000 16 12 14
6.281250 5.593750 -0.020000 16 12 14
6.312500 5.593750 -0.020000 16 12 14
6.343750 5.593750 -0.020000 16 12 14
6.375000 5.593750 -0.020000 16 12 14
6.406250 5.593750 -0.020000 16 12 14
6.437500 5.593750 -0.020000 16 12 14
6.468750 5.593750 -0.020000 16 12 14
6.500000 5.593750 -0.020000 16 12 10
6.531250 5.593750 -0.020000 16 12 10
6.562500 5.593750 -0.020000 16 12 10
6.593750 5.593750 -0.020000 16 12 10
6.625000 5.593750 -0.020000 16 12 10
7.093750 5.593750 -0.020000 18 11 10
7.125000 5.593750 -0.020000 15 13 10
7.156250 5.593750 -0.020000 15 13 10
7.187500 5.593750 -0.020000 15 13 10
7.500000 5.593750 -0.020000 55 14 8
4.083333 2.486111 -0.008889 21 10 10
4.097222 2.486111 -0.008889 21 10 10
4.107545 2.483955 -0.008881 19 11 10
4.117851 2.481802 -0.008873 19 11 10
4.131716 2.481802 -0.008873 16 12 10
3.200000 1.859740 -0.006649 16 12 10
3.204148 1.856124 -0.006636 16 12 10
3.210356 1.853722 -0.006628 16 12 10
3.220712 1.853722 -0.006628 16 12 10
3.570718 2.035537 -0.007278 16 12 10
3.541813 2.012649 -0.007196 16 12 10
3.550562 2.011236 -0.007191 16 12 10
3.904542 2.204773 -0.007883 16 12 10
3.935035 2.215004 -0.007920 16 12 10
3.929176 2.204773 -0.007883 16 12 10
-2.796822 1.616345 -0.005812 13 14 16
-2.789324 1.617263 -0.005815 13 14 16
-2.812177 1.635841 -0.005882 12 13 15
-2.802987 1.635841 -0.005882 12 13 15
-2.711712 1.603604 -0.005766 14 14 14
-2.702703 1.603604 -0.005766 14 14 14
-2.693694 1.603604 -0.005766 14 14 14
-2.684685 1.603604 -0.005766 14 14 14
-2.675676 1.603604 -0.005766 14 14 14
-2.704871 1.632092 -0.005868 14 14 14
-2.666667 1.614512 -0.005805 14 14 14
-2.639640 1.603604 -0.005766 14 14 14
-2.630631 1.603604 -0.005766 14 14 14
-2.621622 1.603604 -0.005766 14 14 14
-2.685185 1.648148 -0.005926 14 14 14
-2.666667 1.648148 -0.005926 14 14 14
-2.630012 1.631157 -0.005865 14 14 14
-2.592635 1.613598 -0.005802 14 14 14
-2.567568 1.603604 -0.005766 14 14 14
-2.558558 1.603604 -0.005766 14 14 14
-2.580941 1.634902 -0.005878 14 14 14
-2.570281 1.633964 -0.005875 14 14 14
-2.539249 1.620023 -0.005825 14 14 14
-2.504504 1.603604 -0.005766 14 14 14
-2.495496 1.603604 -0.005766 14 14 14
-2.609929 1.683215 -0.006052 14 14 14
-2.594340 1.679245 -0.006038 14 14 14
-2.569754 1.669402 -0.006002 14 14 14
-2.541012 1.656777 -0.005957 14 14 14
-2.498278 1.634902 -0.005878 14 14 14
-2.472064 1.623717 -0.005838 14 14 14
-2.455941 1.619102 -0.005821 14 14 14
-2.445455 1.618182 -0.005818 14 14 14
-2.434980 1.617263 -0.005815 14 14 14
-2.417657 1.611771 -0.005795 14 14 14
-2.396396 1.603604 -0.005766 14 14 14
-2.387387 1.603604 -0.005766 14 14 14
-2.378378 1.603604 -0.005766 14 14 14
-2.369369 1.603604 -0.005766 14 14 14
-2.360360 1.603604 -0.005766 14 14 14
-2.351351 1.603604 -0.005766 14 14 14
-2.342342 1.603604 -0.005766 14 14 14
-2.333333 1.603604 -0.005766 14 14 14
-2.404193 1.658707 -0.005964 14 14 14
-2.316742 1.610860 -0.005792 14 14 14
-2.297297 1.603604 -0.005766 14 14 14
-2.288288 1.603604 -0.005766 14 14 14
-2.279279 1.603604 -0.005766 14 14 14
-2.270270 1.603604 -0.005766 14 14 14
-1.911263 1.620023 -0.005825 14 14 14
-1.902162 1.620023 -0.005825 14 14 14
-1.813031 1.613598 -0.005802 14 14 14
-1.792793 1.603604 -0.005766 14 14 14
-1.783784 1.603604 -0.005766 14 14 14
-1.774775 1.603604 -0.005766 14 14 14
-1.765766 1.603604 -0.005766 14 14 14
-1.756757 1.603604 -0.005766 14 14 14
-1.747748 1.603604 -0.005766 14 14 14
-1.738739 1.603604 -0.005766 14 14 14
-1.729730 1.603604 -0.005766 16 12 10
-1.720721 1.603604 -0.005766 16 12 10
-1.711712 1.603604 -0.005766 16 12 10
-1.702703 1.603604 -0.005766 16 12 10
-1.693694 1.603604 -0.005766 16 12 10
-1.684685 1.603604 -0.005766 16 12 10
-1.675676 1.603604 -0.005766 16 12 10
-1.666667 1.603604 -0.005766 16 12 10
-1.657658 1.603604 -0.005766 16 12 10
-1.648649 1.603604 -0.005766 16 12 10
-1.616345 1.616345 -0.005812 16 12 10
-1.601810 1.610860 -0.005792 16 12 10
-1.585586 1.603604 -0.005766 16 12 10
-1.576577 1.603604 -0.005766 16 12 10
-1.567568 1.603604 -0.005766 16 12 10
-1.558559 1.603604 -0.005766 16 12 10
-1.549550 1.603604 -0.005766 16 12 10
-1.540541 1.603604 -0.005766 16 12 10
-1.531532 1.603604 -0.005766 16 12 10
-1.522523 1.603604 -0.005766 16 12 10
-1.544828 1.636782 -0.005885 16 12 10
-1.535632 1.636782 -0.005885 16 12 10
-1.512528 1.621868 -0.005831 16 12 10
-1.493213 1.610860 -0.005792 16 12 10
-1.477477 1.603604 -0.005766 16 12 10
-1.468468 1.603604 -0.005766 16 12 10
-1.459459 1.603604 -0.005766 16 12 10
-1.442995 1.615428 -0.005808 14 14 14
-1.423423 1.603604 -0.005766 14 14 14
-1.414414 1.603604 -0.005766 14 14 14
-1.405405 1.603604 -0.005766 14 14 14
-1.396396 1.603604 -0.005766 14 14 14
-4.593750 5.562500 -0.020000 14 14 14
-4.562500 5.562500 -0.020000 14 14 14
-4.062500 5.562500 -0.020000 14 14 14
-4.031250 5.562500 -0.020000 14 14 14
-4.000000 5.562500 -0.020000 14 14 14
-3.968750 5.562500 -0.020000 14 14 14
-3.937500 5.562500 -0.020000 14 14 14
-3.906250 5.562500 -0.020000 14 14 14
-3.875000 5.562500 -0.020000 14 14 14
-0.387387 1.603604 -0.005766 14 14 14
-0.378378 1.603604 -0.005766 14 14 14
-0.369369 1.603604 -0.005766 14 14 14
-0.360360 1.603604 -0.005766 14 14 14
-1.218750 5.562500 -0.020000 14 14 14
-1.125000 5.562500 -0.020000 14 14 14
-1.093750 5.562500 -0.020000 14 14 14
-1.062500 5.562500 -0.020000 14 14 14
-1.031250 5.562500 -0.020000 14 14 14
-1.000000 5.562500 -0.020000 16 12 14
-0.968750 5.562500 -0.020000 16 12 14
-0.937500 5.562500 -0.020000 16 12 14
-0.906250 5.562500 -0.020000 16 12 14
-0.875000 5.562500 -0.020000 16 12 14
-0.843750 5.562500 -0.020000 16 12 14
-0.812500 5.562500 -0.020000 16 12 14
-0.764818 5.445507 -0.019579 16 12 14
-0.687500 5.562500 -0.020000 16 12 14
-0.656250 5.562500 -0.020000 16 12 14
-0.625000 5.562500 -0.020000 16 12 14
-0.593750 5.562500 -0.020000 16 12 14
-0.562500 5.562500 -0.020000 16 12 14
-0.041667 3.708333 -0.013333 16 12 10
-0.020833 3.708333 -0.013333 16 12 10
0.000000 3.708333 -0.013333 14 14 14
0.020833 3.708333 -0.013333 14 14 14
0.041667 3.708333 -0.013333 14 14 14
0.062419 3.703511 -0.013316 14 14 14
0.082794 3.684347 -0.013247 14 14 14
0.838339 1.819808 -0.006543 16 12 10
0.848562 1.819808 -0.006543 16 12 10
0.857690 1.817486 -0.006535 16 12 10
0.867347 1.816326 -0.006531 16 12 10
0.877551 1.816326 -0.006531 19 11 10
0.905071 1.851755 -0.006658 19 11 10
0.915475 1.851755 -0.006658 21 10 10
0.925878 1.851755 -0.006658 21 10 10
0.936890 1.852960 -0.006662 23 10 11
0.947917 1.854167 -0.006667 24 11 12
0.958333 1.854167 -0.006667 25 11 12
0.968750 1.854167 -0.006667 26 12 13
6.187500 5.562500 -0.020000 16 12 14
6.218750 5.562500 -0.020000 16 12 14
6.250000 5.562500 -0.020000 16 12 14
6.281250 5.562500 -0.020000 16 12 14
6.312500 5.562500 -0.020000 16 12 14
6.343750 5.562500 -0.020000 16 12 14
6.375000 5.562500 -0.020000 16 12 14
6.406250 5.562500 -0.020000 16 12 14
6.437500 5.562500 -0.020000 16 12 14
6.468750 5.562500 -0.020000 16 12 14
6.500000 5.562500 -0.020000 16 12 10
6.531250 5.562500 -0.020000 16 12 10
6.562500 5.562500 -0.020000 16 12 10
6.593750 5.562500 -0.020000 16 12 10
6.625000 5.562500 -0.020000 16 12 10
6.656250 5.562500 -0.020000 16 12 10
7.000000 5.562500 -0.020000 19 11 10
7.031250 5.562500 -0.020000 19 11 10
7.062500 5.562500 -0.020000 18 11 10
7.093750 5.562500 -0.020000 18 11 10
7.125000 5.562500 -0.020000 15 13 10
7.156250 5.562500 -0.020000 15 13 10
7.187500 5.562500 -0.020000 15 13 10
7.218750 5.562500 -0.020000 15 13 10
7.250000 5.562500 -0.020000 19 11 10
7.468750 5.562500 -0.020000 45 9 18
7.500000 5.562500 -0.020000 56 15 9
7.531250 5.562500 -0.020000 55 14 8
4.083333 2.472222 -0.008889 21 10 10
4.097222 2.472222 -0.008889 21 10 10
4.107545 2.470078 -0.008881 19 11 10
4.117851 2.467938 -0.008873 19 11 10
4.131716 2.467938 -0.008873 16 12 10
3.197923 1.848151 -0.006645 16 12 10
3.200000 1.843366 -0.006628 16 12 10
3.210356 1.843366 -0.006628 16 12 10
3.220712 1.843366 -0.006628 16 12 10
3.582090 2.024165 -0.007278 16 12 10
3.553057 2.001405 -0.007196 16 12 10
3.532033 1.983287 -0.007131 16 12 10
3.910838 2.189085 -0.007871 16 12 10
3.923136 2.189085 -0.007871 16 12 10
-2.805902 1.607265 -0.005812 16 16 16
-2.787330 1.601810 -0.005792 14 15 17
-2.778280 1.601810 -0.005792 13 14 16
-2.780238 1.608177 -0.005815 12 13 15
-2.702703 1.594595 -0.005766 14 14 14
-2.693694 1.594595 -0.005766 14 14 14
-2.684685 1.594595 -0.005766 14 14 14
-2.675676 1.594595 -0.005766 14 14 14
-2.710933 1.621065 -0.005861 14 14 14
-2.701774 1.621065 -0.005861 14 14 14
-2.648649 1.594595 -0.005766 14 14 14
-2.639640 1.594595 -0.005766 14 14 14
-2.630631 1.594595 -0.005766 14 14 14
-2.621622 1.594595 -0.005766 14 14 14
-2.685185 1.638889 -0.005926 14 14 14
-2.666667 1.638889 -0.005926 14 14 14
-2.619347 1.621065 -0.005861 14 14 14
-2.583569 1.604533 -0.005802 14 14 14
-2.570281 1.624785 -0.005875 14 14 14
-2.537806 1.610006 -0.005821 14 14 14
-2.504504 1.594595 -0.005766 14 14 14
-2.495496 1.594595 -0.005766 14 14 14
-2.609929 1.673759 -0.006052 14 14 14
-2.600473 1.673759 -0.006052 14 14 14
-2.578824 1.665882 -0.006024 14 14 14
-2.560375 1.660023 -0.006002 14 14 14
-2.531704 1.647469 -0.005957 14 14 14
-2.483391 1.621993 -0.005865 14 14 14
-2.461539 1.613675 -0.005835 14 14 14
-2.445455 1.609091 -0.005818 14 14 14
-2.436364 1.609091 -0.005818 14 14 14
-2.417657 1.602716 -0.005795 14 14 14
-2.396396 1.594595 -0.005766 14 14 14
-2.387387 1.594595 -0.005766 14 14 14
-2.378378 1.594595 -0.005766 14 14 14
-2.369369 1.594595 -0.005766 14 14 14
-2.360360 1.594595 -0.005766 14 14 14
-2.351351 1.594595 -0.005766 14 14 14
-2.342342 1.594595 -0.005766 14 14 14
-2.333333 1.594595 -0.005766 14 14 14
-2.306306 1.594595 -0.005766 14 14 14
-2.297297 1.594595 -0.005766 14 14 14
-2.288288 1.594595 -0.005766 14 14 14
-2.279279 1.594595 -0.005766 14 14 14
-2.270270 1.594595 -0.005766 14 14 14
-1.911263 1.610922 -0.005825 14 14 14
-1.902162 1.610922 -0.005825 14 14 14
-1.801802 1.594595 -0.005766 14 14 14
-1.792793 1.594595 -0.005766 14 14 14
-1.783784 1.594595 -0.005766 14 14 14
-1.774775 1.594595 -0.005766 14 14 14
-1.765766 1.594595 -0.005766 14 14 14
-1.756757 1.594595 -0.005766 14 14 14
-1.747748 1.594595 -0.005766 14 14 14
-1.738739 1.594595 -0.005766 14 14 14
-1.729730 1.594595 -0.005766 16 12 10
-1.720721 1.594595 -0.005766 16 12 10
-1.711712 1.594595 -0.005766 16 12 10
-1.702703 1.594595 -0.005766 16 12 10
-1.693694 1.594595 -0.005766 16 12 10
-1.684685 1.594595 -0.005766 16 12 10
-1.675676 1.594595 -0.005766 16 12 10
-1.666667 1.594595 -0.005766 16 12 10
-1.657658 1.594595 -0.005766 16 12 10
-1.648649 1.594595 -0.005766 16 12 10
-1.616345 1.607265 -0.005812 16 12 10
-1.594595 1.594595 -0.005766 16 12 10
-1.585586 1.594595 -0.005766 16 12 10
-1.576577 1.594595 -0.005766 16 12 10
-1.567568 1.594595 -0.005766 16 12 10
-1.558559 1.594595 -0.005766 16 12 10
-1.549550 1.594595 -0.005766 16 12 10
-1.540541 1.594595 -0.005766 16 12 10
-1.531532 1.594595 -0.005766 16 12 10
-1.522523 1.594595 -0.005766 16 12 10
-1.544828 1.627586 -0.005885 16 12 10
-1.535632 1.627586 -0.005885 16 12 10
-1.512528 1.612756 -0.005831 16 12 10
-1.493213 1.601810 -0.005792 16 12 10
-1.477477 1.594595 -0.005766 16 12 10
-1.468468 1.594595 -0.005766 16 12 10
-1.459459 1.594595 -0.005766 16 12 10
-1.442995 1.606353 -0.005808 14 14 14
-1.423423 1.594595 -0.005766 14 14 14
-1.414414 1.594595 -0.005766 14 14 14
-1.405405 1.594595 -0.005766 14 14 14
-1.396396 1.594595 -0.005766 14 14 14
-4.593750 5.531250 -0.020000 14 14 14
-4.562500 5.531250 -0.020000 14 14 14
-4.062500 5.531250 -0.020000 14 14 14
-4.031250 5.531250 -0.020000 14 14 14
-4.000000 5.531250 -0.020000 14 14 14
-3.968750 5.531250 -0.020000 14 14 14
-3.937500 5.531250 -0.020000 14 14 14
-3.906250 5.531250 -0.020000 14 14 14
-3.875000 5.531250 -0.020000 14 14 14
-0.387387 1.594595 -0.005766 14 14 14
-0.378378 1.594595 -0.005766 14 14 14
-0.369369 1.594595 -0.005766 14 14 14
-0.360360 1.594595 -0.005766 14 14 14
-1.218750 5.531250 -0.020000 14 14 14
-1.187500 5.531250 -0.020000 14 14 14
-1.156250 5.531250 -0.020000 14 14 14
-1.125000 5.531250 -0.020000 14 14 14
-1.093750 5.531250 -0.020000 14 14 14
-1.062500 5.531250 -0.020000 14 14 14
-1.031250 5.531250 -0.020000 14 14 14
-1.000000 5.531250 -0.020000 16 12 14
-0.968750 5.531250 -0.020000 16 12 14
-0.937500 5.531250 -0.020000 16 12 14
-0.906250 5.531250 -0.020000 16 12 14
-0.875000 5.531250 -0.020000 16 12 14
-0.843750 5.531250 -0.020000 16 12 14
-0.812500 5.531250 -0.020000 16 12 14
-0.764818 5.414914 -0.019579 16 12 14
-0.687500 5.531250 -0.020000 16 12 14
-0.656250 5.531250 -0.020000 16 12 14
-0.625000 5.531250 -0.020000 16 12 14
-0.593750 5.531250 -0.020000 16 12 14
-0.562500 5.531250 -0.020000 16 12 14
-0.041667 3.687500 -0.013333 16 12 10
-0.020833 3.687500 -0.013333 16 12 10
0.000000 3.687500 -0.013333 14 14 14
0.020833 3.687500 -0.013333 14 14 14
0.858238 1.808429 -0.006539 16 12 10
0.866794 1.804971 -0.006526 16 12 10
0.876433 1.803822 -0.006522 19 11 10
0.904483 1.840156 -0.006654 19 11 10
0.915475 1.841352 -0.006658 21 10 10
0.925878 1.841352 -0.006658 21 10 10
0.936281 1.841352 -0.006658 23 10 11
0.947300 1.842550 -0.006662 24 11 12
0.958333 1.843750 -0.006667 25 11 12
6.187500 5.531250 -0.020000 16 12 14
6.218750 5.531250 -0.020000 16 12 14
6.250000 5.531250 -0.020000 16 12 14
6.281250 5.531250 -0.020000 16 12 14
6.312500 5.531250 -0.020000 16 12 14
6.343750 5.531250 -0.020000 16 12 14
6.375000 5.531250 -0.020000 16 12 14
6.406250 5.531250 -0.020000 16 12 14
6.437500 5.531250 -0.020000 16 12 14
6.468750 5.531250 -0.020000 16 12 14
6.500000 5.531250 -0.020000 16 12 10
6.531250 5.531250 -0.020000 16 12 10
6.562500 5.531250 -0.020000 16 12 10
6.593750 5.531250 -0.020000 16 12 10
6.625000 5.531250 -0.020000 16 12 10
6.656250 5.531250 -0.020000 16 12 10
6.812500 5.531250 -0.020000 16 12 10
6.843750 5.531250 -0.020000 16 12 10
6.875000 5.531250 -0.020000 16 12 10
6.906250 5.531250 -0.020000 16 12 10
6.937500 5.531250 -0.020000 16 12 10
6.968750 5.531250 -0.020000 16 12 10
7.000000 5.531250 -0.020000 19 11 10
7.031250 5.531250 -0.020000 19 11 10
7.062500 5.531250 -0.020000 18 11 10
7.093750 5.531250 -0.020000 18 11 10
7.125000 5.531250 -0.020000 15 13 10
7.156250 5.531250 -0.020000 15 13 10
7.187500 5.531250 -0.020000 15 13 10
7.218750 5.531250 -0.020000 15 13 10
7.250000 5.531250 -0.020000 19 11 10
7.437500 5.531250 -0.020000 44 8 17
7.468750 5.531250 -0.020000 45 9 18
7.500000 5.531250 -0.020000 56 15 9
7.531250 5.531250 -0.020000 55 14 8
4.083333 2.458333 -0.008889 21 10 10
4.093668 2.456201 -0.008881 21 10 10
4.103986 2.454073 -0.008873 19 11 10
4.114286 2.451948 -0.008866 19 11 10
4.128139 2.451948 -0.008866 16 12 10
4.141991 2.451948 -0.008866 16 12 10
3.197923 1.837768 -0.006645 16 12 10
3.191737 1.828276 -0.006611 16 12 10
3.206206 1.830640 -0.006619 16 12 10
3.216548 1.830640 -0.006619 16 12 10
3.532033 1.972145 -0.007131 16 12 10
3.496907 1.946392 -0.007038 16 12 10
3.469748 1.925221 -0.006961 16 12 10
-2.796822 1.598184 -0.005812 19 14 18
-2.778280 1.592760 -0.005792 19 14 18
-2.773938 1.595467 -0.005802 18 13 17
-2.684685 1.585586 -0.005766 10 10 10
-2.675676 1.585586 -0.005766 10 10 10
-2.666667 1.585586 -0.005766 14 14 14
-2.657658 1.585586 -0.005766 14 14 14
-2.648649 1.585586 -0.005766 14 14 14
-2.639640 1.585586 -0.005766 14 14 14
-2.630631 1.585586 -0.005766 14 14 14
-2.621622 1.585586 -0.005766 14 14 14
-2.571757 1.616533 -0.005878 14 14 14
-2.533485 1.598184 -0.005812 14 14 14
-2.504504 1.585586 -0.005766 14 14 14
-2.495496 1.585586 -0.005766 14 14 14
-2.611473 1.665287 -0.006056 14 14 14
-2.602011 1.665287 -0.006056 14 14 14
-2.578824 1.656471 -0.006024 14 14 14
-2.569412 1.656471 -0.006024 14 14 14
-2.464347 1.606389 -0.005841 14 14 14
-2.446845 1.600910 -0.005821 14 14 14
-2.436364 1.600000 -0.005818 14 14 14
-2.420397 1.595467 -0.005802 14 14 14
-2.407240 1.592760 -0.005792 14 14 14
-2.387387 1.585586 -0.005766 14 14 14
-2.378378 1.585586 -0.005766 14 14 14
-2.369369 1.585586 -0.005766 14 14 14
-2.360360 1.585586 -0.005766 14 14 14
-2.351351 1.585586 -0.005766 14 14 14
-2.342342 1.585586 -0.005766 14 14 14
-2.333333 1.585586 -0.005766 14 14 14
-2.324324 1.585586 -0.005766 14 14 14
-2.315315 1.585586 -0.005766 14 14 14
-2.306306 1.585586 -0.005766 14 14 14
-2.297297 1.585586 -0.005766 14 14 14
-2.288288 1.585586 -0.005766 14 14 14
-2.279279 1.585586 -0.005766 14 14 14
-2.270270 1.585586 -0.005766 14 14 14
-1.910176 1.600910 -0.005821 14 14 14
-1.901080 1.600910 -0.005821 14 14 14
-1.801802 1.585586 -0.005766 14 14 14
-1.792793 1.585586 -0.005766 14 14 14
-1.783784 1.585586 -0.005766 14 14 14
-1.774775 1.585586 -0.005766 14 14 14
-1.765766 1.585586 -0.005766 14 14 14
-1.756757 1.585586 -0.005766 14 14 14
-1.747748 1.585586 -0.005766 14 14 14
-1.720721 1.585586 -0.005766 14 14 14
-1.711712 1.585586 -0.005766 14 14 14
-1.702703 1.585586 -0.005766 14 14 14
-1.693694 1.585586 -0.005766 14 14 14
-1.684685 1.585586 -0.005766 14 14 14
-1.675676 1.585586 -0.005766 14 14 14
-1.666667 1.585586 -0.005766 14 14 14
-1.657658 1.585586 -0.005766 14 14 14
-1.648649 1.585586 -0.005766 14 14 14
-1.617263 1.599091 -0.005815 14 14 14
-1.594595 1.585586 -0.005766 14 14 14
-1.585586 1.585586 -0.005766 14 14 14
-1.576577 1.585586 -0.005766 14 14 14
-1.567568 1.585586 -0.005766 14 14 14
-1.558559 1.585586 -0.005766 14 14 14
-1.549550 1.585586 -0.005766 14 14 14
-1.540541 1.585586 -0.005766 14 14 14
-1.531532 1.585586 -0.005766 14 14 14
-1.522523 1.585586 -0.005766 14 14 14
-1.508234 1.599091 -0.005815 14 14 14
-1.486486 1.585586 -0.005766 14 14 14
-1.477477 1.585586 -0.005766 14 14 14
-1.468468 1.585586 -0.005766 14 14 14
-1.459459 1.585586 -0.005766 14 14 14
-1.441360 1.595467 -0.005802 14 14 14
-1.423423 1.585586 -0.005766 14 14 14
